ply
format ascii 1.0
comment Created by Open3D
element vertex 1024
property double x
property double y
property double z
end_header
0.000221597 0.41096 0.860561
0.0924114 0.00990412 0.226811
-0.188553 -0.042549 0.0447571
-0.198891 0.0596516 0.782545
0.262625 0.0638127 0.731426
0.0768962 -0.0343382 0.489216
0.255505 -0.042356 -0.147746
-0.0624408 -0.00392226 -0.893966
0.770713 0.150897 0.255017
-0.770125 0.122895 0.255788
0.0915531 0.0211037 -0.528051
0.481624 -0.0147867 0.00136065
-0.503704 -0.0242149 0.0702986
-0.0903531 -0.0215689 -0.315089
0.000987942 0.231709 0.600903
-0.22014 -0.130819 -0.273054
-0.0296482 0.0253684 0.769238
0.029735 0.0859314 -0.0591185
0.131449 -0.148738 -0.117965
-0.0658659 0.0619991 0.192818
0.00211853 -0.103171 0.0170363
-0.0903531 -0.0300427 -0.608419
0.396018 0.00105296 0.000607744
-0.0756856 0.046528 0.471272
-0.107981 -0.150655 -0.09602
0.0434422 -0.0927477 -0.258692
0.0764821 -0.0581381 -0.727105
-0.0798603 -0.0424347 0.360734
0.633577 0.0135189 0.180171
-0.319731 -0.0230753 -0.112119
0.06425 0.0649293 0.0243141
0.428011 -0.0175192 -0.0395242
0.0350205 0.0844385 -0.32198
-0.663289 0.0188858 0.194491
-0.00175955 0.0890959 -0.717425
-0.00599933 -0.0229639 -0.137171
0.191225 -0.0419556 0.0403541
-0.00142672 0.207723 0.799876
0.0729222 0.0554493 0.667457
-0.0574084 0.0687447 -0.490352
0.0205403 -0.0989663 -0.418932
0.224395 -0.127877 -0.275546
-0.338849 -0.0210034 0.057321
-0.0596802 0.0023731 0.653487
0.0561398 -0.0287619 -0.920072
-0.0206259 -0.101047 -0.198681
-0.208262 -0.11681 -0.124012
-0.024731 -0.0975405 0.180207
0.0874189 -0.0252221 0.408728
-0.0847626 0.0309312 -0.0675437
0.0558239 0.071649 -0.245101
-0.0737962 0.052712 0.369222
-0.161644 -0.0205377 -0.172511
-0.0491955 -0.0833416 -0.769346
0.316578 -0.040141 -0.0856246
0.117451 -0.021565 -0.162298
0.0469536 0.074321 0.544856
0.042977 -0.0620476 -0.901442
0.125759 0.0429094 0.64478
0.48435 -0.00249172 0.119482
0.0357562 -0.0954936 -0.611988
-0.0788841 0.0431379 0.0290768
0.140256 -0.0649385 -0.108462
0.00120016 0.345883 0.718693
-0.0662013 0.0617312 -0.161603
0.375271 -0.0196045 0.0946064
-0.010348 -0.0461647 0.617713
0.0924114 0.0190942 -0.429048
0.276441 -0.00968862 -0.075013
0.0924114 -0.0239077 0.143656
-0.012823 0.0896941 0.331636
-0.422884 0.00148886 -0.0208297
-0.0288182 -0.0836325 0.407419
-0.042825 -0.0915975 0.0269756
0.0111466 0.125909 0.683139
-0.0396712 -0.0693031 0.479597
-0.0629287 -0.0933257 -0.103049
0.00670531 -0.0468204 -0.261101
-0.0823591 -0.0471468 -0.47111
-0.00876286 -0.135299 -0.820643
0.0682809 -0.0711935 0.298014
0.0152957 0.0895721 0.157501
0.755302 0.0246484 0.205943
-0.159576 -0.0598384 -0.0803015
-0.615403 0.00744147 0.0824602
-0.262884 -0.0638881 -0.224989
0.131697 0.0523318 0.765422
-0.0783088 0.0352277 -0.774589
0.0537381 0.0576018 -0.814814
0.0893039 -0.0355633 0.0151993
-0.164147 0.0524797 0.665432
-0.29174 -0.0085797 -0.0500531
0.042206 0.0825097 -0.601338
0.0849993 0.0347121 -0.0888416
0.0921709 -0.0310441 -0.324591
-0.0764218 0.0455718 -0.671645
0.0728457 -0.0692982 -0.602714
0.584823 0.0166047 0.0837362
0.0479028 0.0779665 -0.436735
0.0161366 -0.0306629 0.667075
0.196475 -0.096086 -0.279117
0.214559 -0.123368 -0.14588
-0.0492675 0.0752359 -0.291528
-0.312118 0.0703423 0.78697
0.0515378 -0.0975309 -0.130167
0.0398369 0.0835725 0.435416
-0.172546 -0.0221776 -0.0699062
0.0349901 0.0528589 -0.877861
-0.0903531 0.00580162 -0.388532
0.407098 -0.0270894 -0.0208303
-0.0335449 0.0787816 0.599643
-0.02685 -0.0970566 -0.531737
-0.227265 -0.135487 -0.22429
0.162336 -0.0234651 -0.0615697
-0.0768728 0.0473144 0.118854
-0.0449034 -0.0319975 -0.936873
-0.0903531 -8.18623e-05 0.26091
0.0604129 -0.0643202 -0.839571
-0.0335708 -0.0311747 -0.0211103
0.0100773 -0.101354 -0.296495
-0.259583 -0.0645621 -0.170721
-0.0779549 -0.053906 0.253872
0.0802782 0.0444562 0.325086
-0.218653 -0.0545848 -0.273942
-0.755292 0.0257237 0.218514
0.282889 -0.0256819 0.0340626
-0.0430277 -0.0903158 -0.678284
0.135809 -0.0609953 -0.220981
-0.0607989 0.0660392 -0.262875
-0.495028 -0.00813614 0.152926
0.00935025 0.230136 0.713234
-0.093959 0.0348408 0.70858
-0.0903531 -0.00477867 -0.0987243
0.0566542 -0.0953073 -0.0624189
-0.0657253 -0.0441466 -0.863215
0.0756001 0.0470494 0.513667
-0.0053922 0.313276 0.801413
0.0233885 0.0666747 0.758397
-3.89688e-05 0.131495 0.51358
0.0876542 0.0266175 -0.670102
-0.418782 -0.0212108 0.0504313
-0.0151231 -0.0983316 -0.721576
-0.0252636 -0.0974186 0.292872
0.265713 -0.0627465 -0.233073
-0.248372 -0.0364158 0.00659002
-0.116177 -0.0678216 -0.221084
-0.0710987 -0.0241861 -0.20173
-0.0903531 0.0112367 -0.573217
-0.122328 -0.0632727 -0.0421434
-0.192448 -0.0927515 -0.137203
-0.238912 -0.0149759 -0.127216
0.041634 -0.0941523 0.0975232
-0.0765762 -0.0577608 0.123845
0.0434868 -0.0927112 0.198967
0.452231 -0.020147 0.0355555
-0.0779693 -0.00753991 0.5557
0.308046 0.0710355 0.8084
0.0741133 0.0052582 0.59726
-0.0350478 0.0839632 -0.405207
0.0645133 0.0463725 0.744535
0.039141 -0.0269339 -0.0736509
0.082336 0.0402442 0.106603
0.0817616 -0.0526597 -0.472869
-0.344089 -0.0355374 -0.0203384
-0.0412026 -0.0928917 -0.358431
0.0217157 0.0879534 -0.155126
-0.0300981 0.0642255 -0.843192
0.00856106 0.27593 0.778451
-0.00392469 0.0919196 0.216563
-0.0513557 0.0735711 -0.0554871
0.0851314 -0.0421966 0.303438
0.197037 0.0587251 0.690763
0.115324 -0.0488232 -0.251622
0.00786948 0.14981 0.613519
0.0889601 0.0178528 -0.756195
0.121176 -0.0260929 -0.0606859
-0.0359371 -0.0949828 -0.57285
-0.0582565 0.0680678 -0.584805
0.197984 -0.0585557 -0.0595283
-0.0359407 0.084017 0.423665
0.0889938 -0.0792929 -0.169958
0.0547924 -0.0836959 -0.49537
-0.0252406 0.0837674 0.509753
-0.0852486 -0.0231617 0.430491
-0.563644 0.00542622 0.151072
-0.0893166 -0.0326974 -0.514211
-0.0882733 0.0236393 -0.348358
-0.0282116 0.0727493 0.686646
-0.0126766 -0.0523055 -0.963549
-0.0298154 -0.102527 -0.0676112
-0.0051184 -0.065262 0.54194
0.0898859 0.0119107 0.434971
-0.274913 -0.0466351 -0.0785524
0.0796478 -0.0564032 -0.643249
-0.00244773 0.0922921 0.00348861
-0.186884 -0.0752326 -0.210575
0.185402 -0.0189766 -0.155267
0.669583 0.0182224 0.113766
-0.0903531 -0.0279641 0.0532828
-0.0691672 -0.0919585 -0.163047
0.0581852 0.0691556 0.48516
0.000333284 0.319877 0.699669
0.0167761 0.0886024 -0.50901
0.0510113 -0.0792718 0.364399
-0.264898 0.0690808 0.740076
0.188017 -0.0773256 -0.207138
0.251357 -0.105245 -0.112892
0.0474428 0.0783332 0.255078
0.00272451 0.274898 0.668068
0.00685701 0.129119 0.755081
0.52631 0.0124609 0.0662969
-0.0870499 -0.0241659 -0.750728
0.0140969 -0.0750166 0.490338
-0.0576357 0.0589364 0.600722
-0.0115404 0.0899994 0.0862708
0.0924114 0.00947784 -0.244168
0.0803712 -0.121865 -0.123955
-0.483436 0.00873471 0.0415917
0.354866 -0.00433222 -0.054601
0.206905 0.0605532 0.782957
-0.0297031 -0.0964057 -0.469661
-0.0393145 -0.000886436 0.705085
-0.0180725 -0.0560978 0.0131004
-0.0903531 0.00935974 -0.216354
0.039639 0.0752676 0.603164
0.0632163 -0.0253881 -0.226968
-0.71017 0.0228395 0.141013
0.0924114 -0.00417573 -0.177953
0.00165937 0.39866 0.778764
0.00464294 0.0154525 -0.954169
0.131668 0.0371863 0.68139
-0.090185 -0.0154185 0.328556
0.193846 -0.059223 -0.119168
0.0521558 0.0264533 0.673716
-0.0753792 -0.000140433 -0.836614
0.254134 -0.128701 -0.209552
-0.100698 -0.0602887 -0.25022
-0.088729 0.0307594 0.665545
0.0782302 0.0487689 -0.17204
0.0924114 0.0137272 -0.596042
-0.0185332 0.0881858 -0.213648
0.083272 0.038299 -0.358658
-0.130767 -0.110178 -0.121854
-0.0632688 -0.0752941 -0.396824
0.075374 0.0547004 -0.494257
-0.0903531 0.0128689 -0.00396972
-0.0804486 -0.0281599 -0.0540196
0.0474528 -0.0396024 0.580764
0.389266 -0.00287479 0.0287033
-0.35919 -0.00345949 -0.0463821
-0.562015 -0.00420357 0.0816316
0.0266648 -0.101681 -0.178884
0.00139717 0.177532 0.550481
-0.0127516 -0.0897704 -0.842926
0.0881856 -0.037327 0.0941215
0.00419767 0.0922172 -0.259182
0.258479 -0.0142875 -0.130271
-0.14028 -0.0670689 -0.150808
-0.126634 0.0473835 0.753546
-0.227539 -0.0647061 -0.0833918
0.0718364 -0.0133677 -0.867757
0.104613 -0.0701911 -0.103389
-0.193356 -0.0562918 -0.0141571
0.445741 -0.0215113 0.00651965
0.139582 -0.0582869 -0.0209351
0.71003 0.0278484 0.150945
-0.0373556 0.0834361 -0.624186
-0.0903531 -0.00721348 0.186621
0.0177129 -0.0966774 -0.785345
-0.233386 -0.113509 -0.175654
0.34244 -0.0335922 5.31919e-05
-0.182006 0.0651607 0.723158
0.238845 -0.0429186 -0.012743
0.0924114 0.0151731 0.0676027
0.0675068 -0.0234363 -0.129606
-0.0903531 -0.0116366 -0.461098
0.0604837 -0.0791565 -0.377441
-0.252453 -0.0823988 -0.117026
-0.0176351 -0.0843248 -0.877196
0.0235961 0.000881114 0.74769
-0.0489619 0.0714743 -0.744371
-0.0660759 0.061832 0.239474
-0.00342618 -0.0242581 -0.203233
-0.00803298 0.0889932 -0.669576
0.0554723 -0.0831534 0.0540777
-0.0747546 0.0559927 0.658572
-0.289459 -0.0388363 -0.00748455
-0.0510456 -0.085042 -0.263674
0.0447575 -0.0904934 -0.685219
-0.244854 -0.0159945 -0.0472106
0.102875 0.040033 0.628685
-0.00398236 0.0881531 0.413866
-0.0862568 -0.0366491 -0.68277
0.083611 -0.0464614 0.199967
0.0469881 0.0786961 -0.121287
-0.0308275 0.0851365 0.033187
0.772093 0.0699573 0.245925
0.580738 0.0138184 0.139385
-0.474954 0.00363371 -0.00298082
-0.0615786 0.0594836 0.563143
-0.0256472 0.0865622 0.393615
-0.0445659 0.0454892 -0.880462
0.0202065 0.08782 -0.54233
-0.00689045 0.184635 0.664097
-0.395627 -0.0268542 0.0176686
-0.256616 -0.0125555 -0.104442
0.0947615 -0.0526415 -0.0315424
0.0924114 -0.0287783 -0.385913
0.0911841 -0.0330939 -0.565796
0.0685155 0.0201618 -0.869148
0.251136 -0.0504506 -0.0929557
-0.0703981 -0.081336 -0.0144545
-0.0927032 -0.0362555 -0.150121
0.0651873 0.0613779 -0.70966
0.0180839 0.0843943 -0.769465
-0.46922 -0.0101859 0.098129
-0.271004 -0.0382794 -0.138826
-0.721186 0.0217738 0.20833
-0.239772 -0.104257 -0.245521
-0.137541 -0.0213845 -0.113901
-0.0430216 -0.0501856 0.549009
-0.139867 -0.0288215 -0.0197907
0.0703186 0.0600894 0.176441
0.0804937 0.0440692 -0.303665
0.0217084 -0.0267851 -0.979989
-0.0154683 0.0211766 -0.933339
0.22787 -0.0710456 -0.1792
0.00232398 0.0784657 0.668625
0.0924114 0.0130408 -0.0189816
-0.440092 -0.0215401 0.0308722
0.174359 0.0476389 0.680636
-0.0889071 0.0220033 -0.633843
-0.0190114 -0.0988453 0.104599
0.494533 -0.0217935 0.0923358
0.0456993 -0.0743647 -0.000649025
0.0528758 -0.0686569 0.421939
0.0309758 -0.0965852 -0.350728
0.0450029 -0.0915025 0.142177
-0.546757 0.0118771 0.0445497
-0.0695667 -0.0687472 0.195765
0.05344 0.0725054 -0.658892
0.010049 0.189601 0.735377
0.0242952 0.0868867 -0.388422
0.215426 -0.0322759 -0.0650093
-0.0765899 0.047901 0.298868
-0.374045 -0.0223936 0.0953476
-0.652144 0.0234876 0.133966
0.0467176 0.0787221 0.372123
-0.00942897 0.0905322 -0.0949969
0.0924114 -0.0215785 0.0533423
-0.247963 -0.0625843 -0.279278
-0.0447993 0.0787998 0.150266
-0.0226662 0.0868531 -0.344358
0.0111869 0.110358 0.659684
-0.0274567 0.0653978 0.742848
-0.0734822 -0.034631 0.502447
0.184865 -0.0598941 -0.156199
-0.0825859 0.0354514 -0.432912
-0.335062 -0.00723555 -0.00311523
0.357095 -0.0053288 0.00694622
0.543343 -0.00630331 0.0891838
0.084018 0.00456021 0.530216
0.0438672 0.0811857 0.109626
-0.0903531 -0.0119746 0.12507
0.107495 -0.100323 -0.0997893
-0.172404 -0.0498495 -0.20556
0.0896592 0.0242816 0.371321
-0.00257445 0.0916796 -0.451957
0.0392032 -0.0230791 -0.178477
0.0924114 0.00564033 -0.463539
-0.603922 0.0190635 0.12334
0.115491 -0.0710034 -0.163787
0.420947 -0.0131738 0.0857428
-0.267884 -0.110499 -0.210053
-0.00587229 -0.102489 -0.136029
0.0919662 -0.0237358 -0.645171
-0.00511765 0.0602574 0.811539
0.0624688 -0.0775743 -0.298775
0.00620515 -0.101846 -0.656438
-0.214896 -0.0433266 -0.14763
0.00454294 0.151959 0.777303
0.033851 0.0269622 -0.913437
-0.0277168 -0.0254947 -0.0966682
-0.0752963 0.0505883 -0.112688
0.00447496 -0.102633 0.236108
0.162967 -0.0187779 -0.141078
-0.0208276 -0.0946554 0.346122
0.222561 -0.0522575 -0.256578
0.627319 0.0201954 0.101664
0.0647731 0.0645126 0.222792
-0.00559002 0.0957917 0.466234
0.0364013 -0.0953467 -0.564204
-0.210854 -0.0840626 -0.182915
0.0550586 -0.0782992 -0.784723
-0.0578181 -0.0796404 -0.310214
-0.376938 -0.00292279 0.0151381
0.0924114 0.00882785 0.17951
-0.087751 0.0173161 -0.72485
0.246427 -0.0186348 -0.0241113
-0.390019 -0.028929 -0.0463214
0.0266736 0.0724449 0.703108
0.00275334 0.354494 0.841661
0.00775757 0.32253 0.763428
-0.0923415 -0.119899 -0.0883079
-0.0890506 0.0220244 -0.284254
0.198991 -0.123288 -0.223686
0.0111869 0.0928643 0.567219
0.529345 0.00100209 0.0221134
-0.0065825 -0.102541 -0.043469
0.306055 -0.00954076 -0.0246996
-0.0887975 0.0225505 -0.162048
-0.618365 0.01715 0.161824
0.080681 0.031202 0.687779
0.0924114 0.0136312 0.289368
-0.0721694 0.0447567 0.752459
0.271835 -0.0881863 -0.171905
-0.05471 -0.0821204 -0.62447
0.000146602 0.259813 0.82276
-0.0183261 0.0882885 0.278524
-0.100223 -0.0482894 0.00786359
0.100363 0.0572639 0.716455
-0.0634117 -0.0751808 -0.53745
0.0239446 -0.0981895 0.307495
-0.0843939 -0.0429205 -0.557597
-0.0673331 -0.0686771 -0.726161
0.268063 -0.0919441 -0.276263
0.187405 -0.0341462 -0.195919
0.0924114 0.0088989 -0.137934
0.174658 -0.0603943 -0.181413
-0.186117 -0.104905 -0.242921
-0.064567 0.0476715 -0.813364
0.286402 -0.0412298 -0.0250375
-0.0684533 -0.0691955 0.312585
0.0910203 -0.0676478 -0.25066
0.00721075 0.212443 0.667859
0.323333 -0.0219337 0.0540989
-0.218236 -0.0213826 -0.1644
-0.772052 0.0723595 0.223626
-0.35669 -0.0330353 -0.0753317
0.0740238 0.0571352 -0.409733
0.181097 0.0644742 0.746204
-0.083114 -0.045579 -0.374307
0.705685 0.0247885 0.205886
-0.232011 -0.04991 -0.210907
0.219448 -0.0930981 -0.246309
-0.0677583 0.0604898 -0.204637
0.0947615 -0.045676 -0.0809814
0.220454 -0.0372012 -0.201019
0.0456191 0.0797878 0.311009
0.12388 -0.0234468 -0.206228
-0.0297046 0.0854197 -0.0428329
-0.751084 0.0252235 0.17151
-0.0774955 -0.0409312 -0.802014
-0.0960937 -0.0691321 -0.0703017
-0.0885035 0.015104 0.404476
-0.0410972 -0.0929762 0.232379
0.0756006 0.0542299 -0.0331093
-0.0195067 0.0875098 -0.573399
-0.263089 0.0682964 0.792245
-0.0110606 -0.0391723 0.643286
0.0173669 -0.0870505 0.405187
0.0638323 -0.0764865 -0.427761
-0.00912865 0.0972664 0.528483
-0.0903531 0.0153575 -0.526469
-0.0570581 0.0690241 0.310217
-0.147727 0.0420348 0.712975
0.162855 -0.0609137 -0.0941396
0.0902148 -0.00801516 -0.709833
-0.233757 -0.0496873 -0.234185
0.195289 -0.054939 -0.00946456
0.088637 -0.0347616 0.271403
-0.00718619 0.236296 0.755234
-0.131481 -0.0312313 -0.223258
0.0627333 0.0661381 -0.573161
0.134021 0.0604639 0.716961
-0.208455 -0.036893 -0.185556
-0.197661 -0.123729 -0.17935
-0.0368917 -0.0901228 -0.799517
0.336934 -0.0379318 -0.0375018
-0.0927032 -0.0545607 -0.186111
-0.0516798 -0.0347673 -0.248643
-0.00335813 0.182621 0.612275
0.00859904 0.09126 0.0543994
0.258323 0.0635621 0.786358
-0.0157874 -0.0801954 0.450131
-0.0729082 -0.0652111 -0.65678
-0.0506215 -0.0220921 -0.157754
0.236585 -0.0322279 0.0173845
-0.261703 -0.105769 -0.271512
-0.201129 -0.0577992 -0.113448
0.0459566 -0.0544551 0.530858
-0.0516749 -0.056142 -0.890486
0.0494727 -0.0342566 -0.0142695
-0.424371 -0.0104298 0.0948023
-0.19949 -0.0536727 -0.0664572
-0.0657604 -0.0721795 0.165936
0.0744378 0.03777 0.565762
0.387087 -0.0023525 -0.049526
0.0812472 -0.04582 -0.77635
0.0225342 0.0683712 -0.828779
0.000281899 0.0929805 0.253794
0.0407452 -0.00321659 0.702734
-0.00625142 0.123204 0.591527
0.236867 -0.111031 -0.177613
0.0924114 -0.0305016 -0.517611
0.2715 -0.108708 -0.218981
0.0540218 -0.0837516 0.253799
-0.519568 0.0097025 0.0958728
-0.0642531 -0.0591395 0.412563
0.221131 0.0684154 0.716348
0.379528 -0.0337372 0.0460456
0.188435 -0.0176651 -0.0985436
-0.00853896 0.157776 0.70065
-0.0735588 -0.0893816 -0.215186
0.0369439 0.084114 0.0672388
-0.0652209 0.0625137 -0.538686
0.0685337 -0.0527769 0.444645
0.0745889 0.0539794 0.418916
-0.0903531 0.0174534 0.0865329
0.0800593 -0.0478765 0.352703
0.462622 -0.0142856 0.0831947
0.0806902 0.028147 -0.790466
-0.0862949 0.0337818 0.624084
-0.0583849 0.0679661 0.0658774
0.0853005 -0.0451211 -0.14777
0.0354163 -0.0358571 0.629513
0.0790695 0.0470263 -0.625407
-0.047943 -0.0875161 0.0672666
-0.0729885 0.0528522 0.428372
-0.0773935 0.0462333 -0.0313244
-0.0703299 -0.0474368 0.455841
0.00786891 -0.0293178 -0.0355032
0.0081034 -0.101804 -0.492779
0.00701264 0.365762 0.803012
0.498913 -0.015816 0.0498034
-0.0933523 -0.0729841 -0.125075
0.679785 0.0233292 0.18806
-0.0927032 -0.0488818 -0.113445
0.0313547 0.0855224 -0.00889887
0.420625 0.000453862 0.0414793
0.0733455 -0.0688998 -0.540791
-0.506984 -0.00551891 0.0108607
-0.168961 -0.032802 -0.00629546
0.281287 -0.0451489 -0.114508
0.0888607 0.0141353 0.481224
-0.0868575 -0.00445511 0.478752
0.0193456 -0.100212 -0.224697
0.125715 -0.0634119 -0.0476895
-0.0561401 -0.0292449 0.587298
-0.294991 -0.0232654 0.0375621
-0.208117 -0.0160733 -0.091123
-0.123024 0.0552563 0.648538
-0.221409 -0.0576811 -0.0377447
0.080968 -0.0515652 -0.690417
0.047693 0.0781345 -0.198406
0.229476 -0.0136173 -0.0923708
-0.052525 -0.0738895 0.379016
-0.0903531 -0.0163008 -0.25077
-0.0874826 -0.0365061 -0.426267
-0.531307 -0.00401251 0.12046
0.00965746 0.0960663 0.724689
0.0410988 0.0830665 0.207746
0.0924114 0.0135967 0.0256657
-0.059791 0.0668437 -0.352892
0.0751629 0.0551392 -0.462504
0.190552 -0.10422 -0.175787
-0.0377679 -0.0945652 0.135145
-0.429858 0.00420594 0.0205282
-0.0869151 0.026462 0.215196
0.00970659 -0.102508 -0.101486
-0.051788 -0.0837852 0.280524
-0.00912865 0.102266 0.702981
-0.086808 0.0266828 0.150072
0.0504835 -0.0294465 0.609043
-0.0739569 0.0477416 -0.718885
0.081837 0.0412792 -0.218247
-0.0817064 0.0372765 -0.137064
0.0590381 0.0690865 -0.361749
0.0670787 -0.0725492 0.227222
0.216287 -0.0382746 -0.152449
-0.0789376 -0.0542516 -0.340429
0.00612531 -0.0741487 -0.914999
-0.0812179 0.0290446 0.527091
0.262807 -0.0643586 -0.178544
0.281277 0.0636216 0.771803
0.322105 -0.00816973 -0.087129
0.0143146 -0.148779 -0.792203
-0.0288129 0.0856444 -0.173477
-0.176275 0.0484953 0.748586
-0.465199 -0.0174664 0.0479773
-0.00912865 0.092222 0.628901
0.00582918 0.0271609 0.798579
0.0924114 -0.0288925 -0.604293
-0.0725787 0.0175081 0.593726
0.245877 -0.0701355 -0.117061
-0.180419 -0.0166052 -0.114035
-0.0136497 -0.0139035 -0.989299
-0.00890581 -0.0551608 0.581035
0.185481 0.0471531 0.720648
0.0766478 0.0520553 0.0558328
0.0791218 -0.0227527 -0.827245
-0.0627036 0.0541243 0.70251
-0.197673 -0.0229649 -0.0321762
0.15262 -0.0259613 -0.031347
-0.0390283 0.0810503 -0.696631
-0.121911 -0.0674962 -0.10867
-0.132499 -0.0668462 -0.18497
0.120155 -0.0233873 -0.104998
0.0367293 0.0728741 0.64936
0.084574 -0.135528 -0.080831
0.0258532 0.0868589 -0.213525
-0.230741 0.0556182 0.75096
0.022119 0.0878516 0.30439
0.202476 -0.105979 -0.110123
-0.197059 -0.0885175 -0.274096
-0.30922 -0.0411981 -0.0761866
0.127105 -0.128868 -0.0787272
-0.118401 -0.0222323 -0.178373
0.0705697 -0.0280831 -0.0552486
0.0624341 0.0478021 0.626636
0.0504442 -0.0846138 -0.73565
-0.02552 0.0861369 -0.513726
0.0672828 0.00348586 0.639493
0.235664 -0.122426 -0.1327
0.527026 -0.00147497 0.127158
-0.00931587 -0.0252211 0.686939
0.00868138 -0.0955742 0.361599
-0.0515104 -0.0225645 0.625193
0.0878314 0.0288325 0.26176
0.0626623 -0.0937222 -0.202581
0.0669998 0.0627364 -0.605866
-0.0115092 0.0900071 0.130702
0.0924114 -0.0286093 -0.428545
-0.00865196 0.151236 0.651256
-0.0337645 -0.0888948 -0.0124685
-0.0694438 0.0591456 -0.394524
0.0565696 0.0710538 -0.525302
0.201981 -0.0230676 -0.0282914
-0.0297999 0.0742125 -0.800124
-0.335818 -0.0307791 0.0293725
0.0310303 -0.0242293 -0.116919
-0.0424946 0.0345767 0.72511
-0.00875978 -0.0709371 0.514402
0.0849467 -0.0460456 -0.207218
-0.000343157 0.0971627 0.783089
-0.0064811 0.277178 0.741494
0.0212843 -0.0859521 -0.86901
-0.0891974 0.00299525 -0.671408
-0.00105811 -0.102943 -0.606467
-0.115285 -0.0205416 -0.144713
0.0924114 0.0133816 -0.567429
-0.0721618 0.0569787 -0.621876
0.0162674 0.0847918 0.49694
-0.0489866 0.0754606 -0.12317
-0.0610277 -0.0926536 -0.0525601
-0.0485644 -0.0870207 -0.507593
-0.0175539 -0.0991784 -0.429086
0.486558 0.00659946 0.0760131
0.0522666 0.0488112 -0.854258
0.217027 -0.0550379 -0.134494
0.0199283 -0.0513934 0.588319
-0.0706377 -0.068486 0.0452487
-0.137204 -0.151346 -0.09531
0.752396 0.028675 0.168922
0.00536535 0.277659 0.708094
0.0704561 -0.0701076 0.11743
-0.00334161 0.129853 0.558446
0.355559 -0.0341241 -0.0756526
-0.0823807 0.0358757 -0.485299
-0.567722 0.0145721 0.0600697
0.190845 -0.0875142 -0.147935
0.0096106 -0.101461 0.0706951
0.092382 0.0193813 -0.386778
0.223736 -0.0711253 -0.0840045
0.0202147 -0.0990411 -0.517694
-0.000141114 0.418201 0.814772
0.000842034 0.25781 0.629467
-0.12777 0.0368887 0.68014
0.0924114 0.00130356 -0.297543
0.0230928 -0.0903695 -0.826101
0.31533 -0.0121714 0.0116177
-0.00870256 0.148288 0.724012
0.114654 -0.0668145 -0.0744735
-0.587443 0.0182445 0.104753
0.0506112 0.0758072 -0.0821707
-0.158824 0.0632491 0.704949
0.0120787 -0.100898 0.16267
-0.218574 -0.0329105 -0.0125622
0.0751185 -0.0649365 0.152213
0.0924114 0.00111537 -0.0959976
0.0455423 0.0292952 0.712575
-0.0597224 -0.0777337 0.0937567
0.0674993 -0.0903263 -0.0272219
-0.689832 0.0267682 0.168676
-0.0607701 -0.0650959 -0.822195
0.0690197 -0.0718137 0.0134092
-0.00783122 0.198834 0.702101
-0.0893771 0.009979 0.365024
-0.376652 -0.032298 0.0518263
-0.00536595 0.0915567 -0.135956
0.771992 0.0950553 0.22125
0.407274 -0.0260266 0.0176531
0.27527 -0.047022 -0.0733399
0.092256 0.00098096 0.327981
0.0669919 -0.0926296 -0.104814
-0.279509 0.0734914 0.763017
-0.240888 -0.0484555 -0.056229
-0.336701 -0.00678816 -0.0791331
0.000163731 0.04814 -0.897605
-0.164202 -0.0627869 -0.114298
-0.0661952 -0.0257731 -0.0922199
0.0281136 -0.0775282 0.452288
-0.188007 -0.0724109 -0.175058
0.0497504 -0.0851629 0.333721
0.0924114 -0.0240815 -0.258342
0.15627 -0.0366559 -0.216127
-0.0396995 -0.0141041 0.67329
0.00568104 0.205717 0.639468
0.0809905 0.0430371 -0.121901
-0.0779436 -0.0563158 -0.28529
0.148257 -0.066103 -0.150085
-0.646425 0.0175935 0.101949
0.0737391 0.0512172 -0.738921
-0.266933 -0.0880951 -0.179154
0.0836234 0.0375713 0.198516
-0.187884 0.0470782 0.694894
-0.0903531 0.00467446 0.0320416
0.0760889 0.0334678 0.72087
-0.0874318 0.00901219 0.452845
0.00473091 -0.102574 -0.380473
0.0379769 -0.00453001 -0.951249
-0.246842 -0.0681327 -0.133113
0.0924114 -0.0193098 -0.493196
0.425403 0.00213117 -0.0115452
0.00356246 -0.10962 -0.802911
-0.0798225 0.0411889 -0.313888
0.00532127 0.091116 -0.632344
0.113216 -0.0335077 -0.0133715
0.774207 0.0547378 0.213872
0.054971 0.0110908 -0.903773
-0.071656 -0.0677477 0.0125526
0.0331543 0.0818117 -0.738638
-0.0445866 -0.0988463 -0.137082
-0.0843675 -0.0406268 0.159057
0.0919494 -0.0277606 0.238433
0.0160354 0.0894713 0.373474
0.190795 -0.0732663 -0.246434
0.214027 0.0529146 0.747456
0.217734 -0.0167165 -0.137535
0.0409456 0.0830867 -0.470182
0.0848937 -0.046156 -0.289286
-0.00912865 0.114127 0.637602
0.0525426 0.06922 -0.774398
0.0598226 0.0538334 0.689881
-0.0927032 -0.0640167 -0.0203126
-0.22168 -0.0882036 -0.0983976
-0.0613731 -0.0768062 -0.459669
0.217344 -0.129266 -0.186998
0.083096 0.0386648 0.140269
-0.018547 -0.0963865 -0.772446
-0.0208462 -0.0711657 -0.916161
-0.0724028 -0.0678197 -0.437066
-0.207829 -0.0697591 -0.246624
-0.275128 -0.0428639 -0.0325676
-0.0354104 0.0252772 -0.912053
-0.316817 -0.0381824 -0.0229042
-0.104975 -0.0292401 -0.02447
0.0924114 -0.00939578 0.119195
-0.395621 -0.0114898 0.0796145
0.0755889 0.054254 0.26223
0.646154 0.0225688 0.145961
0.00520736 0.240951 0.66858
0.618092 0.00535133 0.135862
0.0717397 -0.0251395 0.54449
0.0137227 0.0896086 -0.352638
-0.502625 -0.0171649 0.114723
-0.253818 -0.0117471 -0.0732189
-0.0865989 0.0267692 0.344197
-0.0517941 0.048118 0.670393
-0.0392578 0.0830108 0.209696
-0.363206 -0.0356727 0.010549
0.0185322 -0.0917559 -0.0147956
-0.0903531 -0.00227473 -0.18591
0.0910475 -0.0130096 -0.679103
-0.0705906 0.0582316 0.163906
-0.0594886 0.0670857 0.091992
-0.105584 -0.032683 -0.239271
0.456629 -0.00274326 -0.0201976
-0.0416778 -0.0906931 -0.728345
-0.0707787 -0.0365637 -0.00914648
0.0494753 0.0767126 -0.154151
0.251389 -0.0662307 -0.270923
0.0066997 0.187369 0.772114
0.017567 0.086304 0.461338
0.771885 0.113329 0.255159
3.29042e-05 0.199795 0.581937
0.245556 -0.0476346 -0.0508753
-0.0754452 0.0502782 -0.238307
-0.175274 -0.0549342 -0.0410756
0.0102061 -0.0984891 -0.754895
0.0507311 -0.00762728 0.666816
0.0594833 -0.0584952 -0.868325
0.153086 -0.0213874 -0.183055
0.598491 0.000830225 0.105356
-0.000556808 0.298357 0.828518
-0.028024 -0.102506 -0.105626
-0.0367401 -0.0947994 -0.296465
-0.0368858 -0.0613429 0.526122
0.0348882 0.0317512 0.76146
0.0924114 0.0153412 -0.0562232
-0.238175 0.061158 0.71584
-0.0702492 0.0549308 0.507201
0.0520903 0.0746273 -0.291529
-0.273016 -0.0159216 -0.00948933
0.276594 -0.016417 -0.00295931
-0.0336455 0.084426 -0.00347738
-0.0897976 -0.0237819 -0.649243
0.109515 0.0416786 0.739923
0.0924114 0.0107797 -0.336112
-0.00406663 0.388825 0.831248
-0.319993 -0.00581269 -0.0364548
0.00375213 0.0919637 -0.424065
-0.081866 -0.00373888 -0.800539
0.673757 0.0256353 0.151925
0.0855206 -0.153022 -0.105634
-0.215749 -0.123227 -0.152094
0.0855456 -0.0447591 -0.180912
-0.0243094 -0.10016 -0.226347
-0.518014 -0.0104653 0.0448838
-0.0903531 0.0104245 -0.321724
0.248827 -0.121967 -0.251982
-0.0922914 -0.13757 -0.120295
0.38086 -0.0375968 -0.000127407
-0.00461559 0.251398 0.699853
-0.631064 0.00626534 0.132386
-0.38343 -0.00517423 0.0442511
-0.0903531 0.00720624 -0.242921
-0.0456208 -0.0728938 -0.855862
0.0301781 -0.0967667 0.0422109
-0.0528728 0.0723614 -0.433982
0.0891311 -0.0224483 -0.749857
-0.0481945 0.0759531 0.358536
0.10254 -0.0727488 -0.13914
-0.185291 -0.102659 -0.210745
0.0111869 0.0791119 0.623331
0.0278719 0.084932 -0.669696
-0.0121146 -0.100419 -0.347879
-0.0324022 0.0814843 0.570427
-0.0318535 -0.0959151 -0.38887
0.0714637 -0.0229265 -0.175273
0.141248 -0.0431509 0.00954146
-0.0108777 0.0897594 -0.374085
0.355872 -0.0107111 0.0440822
-0.0383203 -0.0249926 -0.218655
0.0255605 -0.0245663 -0.209707
0.0201664 -0.0990517 0.125789
0.00123407 0.119622 0.792184
-0.0611002 0.0298713 0.698681
-0.201799 -0.127564 -0.240697
0.0923389 0.00907651 -0.631401
-0.000193477 0.370369 0.758378
0.239322 -0.0429848 -0.229982
-0.232683 -0.0922014 -0.195894
0.0359393 -0.0294791 -0.243178
0.0135836 -0.100554 0.270364
0.0924114 -0.00161322 -0.361771
-0.283073 -0.0121561 -0.119089
-0.257753 -0.107352 -0.152972
0.0877602 0.0289784 -0.272306
-0.00760272 0.212129 0.739398
0.0105196 0.162318 0.672185
0.394574 -0.00829935 0.0669997
-0.0567695 0.0692536 -0.322808
-0.0251422 0.0862233 -0.465986
-0.00293722 0.0921682 -0.0328298
-0.0640628 0.0369731 0.639087
0.00131707 -0.0168385 0.71942
-0.269381 -0.110652 -0.241341
-0.000681985 0.114848 0.477703
0.146375 0.0621402 0.686506
0.180402 -0.0332466 -0.00186557
0.0231354 -0.0426958 0.00446378
-0.038275 -0.0280668 -0.055509
-0.0835058 0.0335408 0.252984
-0.010519 -0.100784 -0.268158
-0.162775 -0.0623865 -0.173633
-0.233267 0.0658875 0.78254
0.0712549 -0.0260756 -0.0873743
-0.00607407 -0.138388 -0.787417
-0.406205 -0.0271643 -0.00900505
-0.0779255 -0.0563532 -0.626253
-0.0903531 -0.0191859 -0.281789
0.204339 -0.0522335 -0.176994
-0.0712839 -0.0224262 -0.14577
0.0180089 0.0883211 -0.577576
-0.0903531 -0.0199463 -0.582518
0.077228 -0.0610068 0.0503209
-0.0903531 -0.000362214 -0.495942
-0.0870119 -0.0335615 0.299277
-0.106058 -0.0722304 -0.163594
0.16561 -0.0564089 -0.0353762
0.0442127 -0.0921332 -0.407209
-0.52572 0.0122583 0.0621272
-0.0293166 0.0855176 0.239018
-0.00922428 0.0686516 0.785844
0.00346901 -0.102862 -0.571021
-0.231727 -0.05085 -0.169514
-0.270116 -0.0758336 -0.259918
-0.237217 -0.115912 -0.108183
-0.0460625 0.0718353 -0.778673
-0.0446988 -0.0714892 0.437751
0.0698484 -0.0580709 -0.80685
-0.063719 0.0637109 -0.0891191
-0.0279113 0.0767683 0.659105
0.156354 0.0453164 0.744242
0.215488 -0.0752269 -0.112063
0.0894545 -0.0338562 0.170464
-0.0410938 0.081755 -0.0906707
-0.0710997 -0.0667041 -0.69039
0.0499442 -0.0867605 -0.651852
-0.0575693 0.0683108 0.403001
0.0743182 0.0533102 -0.686119
-0.0245728 -0.00384737 0.729641
-0.0872385 0.0257899 0.182271
-0.0903531 -0.00300537 -0.0337946
-0.073981 -0.0365416 -0.837133
-0.0903205 0.0570603 0.683983
0.00497841 -0.0260132 -0.0883802
0.0723912 -0.0407056 -0.254781
-0.0654256 0.0343031 -0.840764
-0.237415 -0.0764452 -0.1684
0.0924114 0.0137253 -0.494906
0.293833 -0.0107102 -0.103631
-0.391607 -0.00173995 -0.0453663
-0.770896 0.0472644 0.201594
0.232016 -0.0321136 -0.168796
0.074379 -0.0667703 0.0850352
0.0764515 0.0524624 -0.541864
-0.00529901 0.0997597 0.747351
-0.00539709 0.340066 0.807584
-0.0526998 0.0724987 -0.0326179
0.351523 -0.0294321 0.0312437
-0.142367 -0.0252144 -0.0514884
-0.0227443 -0.0230762 -0.178436
-0.084362 -0.040239 0.204223
0.0917481 -0.0167425 0.350907
-0.664287 0.0121844 0.159778
-0.354384 -0.00813037 0.0312725
0.250739 -0.0875334 -0.163614
0.011367 -0.10106 -0.460236
0.0404929 -0.0944135 -0.319046
-0.126468 -0.0543082 -0.0105525
-0.049183 -0.0865272 -0.419618
0.0954814 -0.0716803 -0.21895
-0.371851 -0.032418 -0.0198479
0.0826858 0.0395174 0.0077044
0.0260914 0.015827 -0.9382
0.0270717 -0.102487 -0.139955
-0.0903531 -0.00359102 0.223817
-0.0268252 0.0826393 0.541546
-0.3881 0.000124553 -0.0147217
-0.0218435 0.00362699 -0.962838
-0.0275677 0.0857989 -0.262475
0.579246 -0.000663682 0.0631123
-0.213595 -0.0170814 -0.141978
-0.0541639 0.0713312 0.00958726
-0.130298 0.060171 0.726813
-0.0561325 0.0693083 0.442732
-0.00268048 0.0651088 -0.852166
-0.0245615 0.0867168 0.174838
-0.0619172 -0.0763723 -0.565467
-0.0560877 0.0691393 -0.647739
-0.527959 -0.0086181 0.0787312
0.0627072 0.0661601 0.0876274
-0.153033 -0.0538512 -0.0172741
-0.0580822 -0.0794302 -0.342546
0.514908 0.00873856 0.0953918
0.054771 -0.0580257 0.484673
0.0516053 0.0746964 0.406467
0.0098688 -0.100412 -0.687534
-0.222164 -0.0317728 -0.112332
-0.076841 0.0473796 -0.518053
-0.0668358 -0.0660733 -0.784329
-0.0706125 -0.0694375 -0.599108
-0.077085 0.0468737 0.0903685
-0.0046435 -0.102126 -0.170238
-0.0903531 0.00767381 -0.133358
-0.0903531 0.0178374 0.287985
-0.23269 -0.0320253 -0.0713189
0.047806 0.0780433 -0.404946
0.0663866 -0.0408697 0.520964
0.0256492 0.0869616 -0.186178
0.0784464 0.0093031 -0.831
0.439334 0.000771654 0.0641117
-0.195099 -0.0581035 -0.144927
0.0657417 -0.0351399 -0.887365
-0.0869654 0.00396302 -0.75386
-0.256121 -0.12384 -0.187305
0.222826 -0.0481857 -0.0376849
0.0049466 0.314621 0.736836
0.227355 -0.0317997 -0.114507
-0.0122876 0.0741914 0.713596
0.0732675 0.0577382 0.290978
0.244153 -0.0572135 -0.198535
0.0651194 -0.0744617 0.178921
0.00552461 0.0917487 -0.319708
-0.0452873 -0.0847367 0.349781
0.0267604 0.0832998 0.52399
0.498091 0.00568833 0.0103031
-0.155128 -0.0460024 -0.225008
0.07897 -0.0584568 -0.577055
-0.484745 -0.00163242 0.11868
0.0258418 0.0870346 0.39499
-0.0927032 -0.0549794 -0.222725
-0.377735 -0.0166292 -0.0748921
0.0881261 -0.00246676 -0.777173
-0.00368203 0.091981 -0.167549
0.0746782 -0.0642107 0.326008
-0.00461555 -0.0291392 -0.242827
-0.32852 -0.0386394 -0.0522109
-0.00961274 0.0865488 -0.744606
-0.230711 -0.0529103 -0.114616
0.0832597 -0.0272584 0.455723
0.0924114 0.0116717 -0.203621
